ply
format ascii 1.0
element vertex 1668
property float x
property float y
property float z
end_header
-0.0108185 0.562729 -0.00115928
-0.104037 2.56359 0.0952346
-0.0870926 2.20716 0.0768797
-0.0867023 2.14365 0.0404814
-0.0737546 1.84074 0.00845483
-0.0618224 1.55251 -0.0237537
-0.0359985 1.06041 -0.00403565
-0.0730201 0.0743307 0.0474598
-0.194085 -0.724281 -0.0628291
-0.22504 -0.941983 -0.0740088
-0.262282 -1.20781 -0.0825408
0.402957 1.82887 0.0801473
0.39443 1.85389 -0.0319543
0.355521 1.73748 -0.0412341
-0.0540018 0.509477 0.0177232
-0.141691 0.324308 0.0351874
-0.157887 0.29427 0.0321301
-0.168571 0.275053 0.0286624
-0.207263 0.196979 0.0405371
-0.193699 0.214576 0.0637422
-0.286417 0.0511857 0.0282521
-0.334625 -0.0341332 0.0110553
-0.593136 -0.505532 -0.0392488
-0.80016 -0.891895 -0.0525936
-0.940288 -1.1558 -0.0543596
-0.515181 -0.406941 0.105702
0.508894 1.20441 0.0881967
0.892698 1.72801 -0.071988
0.768525 1.57084 -0.0642722
0.525821 1.26263 -0.0446835
-0.102755 0.497543 0.0275156
-0.303464 0.310984 0.0468509
-0.361548 0.258924 0.0507554
-0.44653 0.187261 0.0387626
-0.537268 0.112942 0.0170735
-1.2706 -0.518563 -0.0253152
-1.52487 -0.740438 -0.0269911
-1.6364 -0.846225 0.00874677
-1.62653 -0.850707 0.0652654
1.00471 1.18892 -0.0643059
0.403739 0.826974 -0.0312528
-0.650188 0.340921 0.0119983
-0.884363 0.26181 -0.0174713
-0.943828 0.238706 -0.00741053
-1.06737 0.194659 -0.00917354
-1.06236 0.19111 0.0221525
-0.836376 0.260253 0.0921446
2.15874 0.959801 -0.1189
1.76787 0.889415 -0.101686
1.49401 0.840092 -0.0895156
1.12094 0.772437 -0.0694008
1.00134 0.751013 -0.064751
0.901514 0.733065 -0.0602911
0.610064 0.679273 -0.0364578
-0.580417 0.56981 0.0296494
-0.816539 0.577585 -0.00735852
-0.946215 0.580923 -0.0194282
-1.12182 0.581909 -0.00470987
-1.1378 0.578998 0.0230464
1.50215 0.184024 -0.10582
1.24319 0.246804 -0.0806105
0.997023 0.307522 -0.0735497
0.809234 0.353455 -0.0614319
0.000544384 0.560375 0.0171268
-0.259073 0.66241 0.0725743
-0.291311 0.676747 0.0750951
-0.335477 0.697177 0.0632417
-0.39334 0.72339 0.0615045
-0.536199 0.789235 0.0342134
-0.63453 0.834521 0.0177719
-1.09971 1.04733 -0.00572816
-1.25489 1.11811 -0.00225958
-1.45467 1.20926 0.00285783
-1.61986 1.28423 0.0240481
-1.62492 1.28537 0.071256
-1.62883 1.28604 0.118584
-0.262055 0.772859 0.0712024
-0.335901 0.840615 0.053638
-0.573375 1.05871 -0.00604993
-0.837841 1.30594 -0.0223159
-0.947468 1.40921 -0.0210889
-1.10719 1.55935 -0.023957
-1.36003 1.79664 -0.0341191
-1.66323 2.08234 -0.0345046
-2.01642 2.41665 -0.0196618
-1.95972 2.37046 0.0583094
-0.272151 0.999384 0.0314316
-0.455367 1.33496 -0.0321277
-0.50214 1.42622 -0.0330486
-0.5622 1.54307 -0.0354754
-0.640091 1.69451 -0.0392193
-0.740232 1.8897 -0.0430578
-0.880554 2.16309 -0.0491644
-1.05181 2.49996 -0.0484388
-1.11926 2.64858 -0.00627705
-1.11359 2.68481 0.117457
0.245627 -0.471555 -0.0425703
-0.181932 1.49432 -0.038587
-0.190276 1.57753 -0.0326219
-0.216097 1.76489 -0.0463232
-0.223168 1.85819 -0.0312869
-0.214936 1.86606 0.00326133
-0.221734 1.96978 0.0236166
-0.290709 2.49657 -0.00253415
-0.275551 2.58809 0.0937223
-0.241461 -1.0507 -0.0334441
-0.219901 -0.842061 -0.033252
-0.184507 -0.522487 -0.0255354
-0.112422 0.107926 -0.00482535
-0.0993831 0.248219 -0.0126266
0.166599 1.35925 -0.0474194
0.193987 1.45632 -0.0547294
0.22717 1.57266 -0.0625724
0.266489 1.70737 -0.0692277
0.315046 1.87185 -0.0759244
0.355109 1.98787 -0.0642765
0.355937 1.93613 -0.0166758
0.446604 2.23963 -0.0265235
0.487892 2.3356 0.00571677
0.411754 1.99663 0.0872058
-0.728836 -0.768964 0.082739
-0.692135 -0.654739 0.0269206
-0.654928 -0.569508 0.00917163
-0.575781 -0.40064 -0.0128487
-0.476218 -0.212833 -0.00927997
-0.192939 0.312809 0.0070999
-0.125537 0.433938 0.00834405
-0.0801345 0.498422 0.0287873
0.431241 1.20488 -0.048214
0.501708 1.30118 -0.0645648
0.559618 1.37388 -0.0669468
0.738541 1.60392 -0.0839574
0.851149 1.74552 -0.0893472
0.49871 1.20431 0.095373
-1.64677 -0.776207 0.07215
-1.62386 -0.734682 0.0248387
-1.39649 -0.54061 0.0125062
-1.18949 -0.368248 0.010301
-1.0514 -0.251676 0.00541556
-0.772565 -0.0178806 -0.00144207
-0.701158 0.0404187 1.5527e-05
-0.432407 0.26156 0.000399292
-0.406458 0.282068 0.00203204
-0.373554 0.305636 0.00941518
0.686666 0.991832 -0.0587105
0.781627 1.04755 -0.0712856
1.00856 1.17643 -0.0908117
1.02125 1.17123 -0.0607724
2.12646 1.75656 -0.0514667
2.04981 1.68721 0.0196893
-0.767021 0.344177 0.00374314
-0.354448 0.465 0.0267627
0.833529 0.689815 -0.072556
0.943523 0.705768 -0.0855866
1.05398 0.720062 -0.0929213
1.40016 0.766855 -0.122761
1.65552 0.800862 -0.143134
2.0089 0.847579 -0.170204
2.52765 0.915639 -0.208234
-1.17617 0.604959 0.0859921
-0.990143 0.613501 0.00626707
-0.888179 0.607204 0.0064587
-0.816555 0.603621 0.00302896
-0.73507 0.597739 0.0064171
-0.485555 0.579736 0.0152468
-1.58069 1.25885 0.0784071
-1.55545 1.25443 0.0356341
-1.36449 1.16749 0.0207299
-1.17385 1.07878 0.0167196
-0.843771 0.926092 0.00312096
-0.566725 0.794561 0.00927371
-1.96368 2.46165 0.0635471
-1.73616 2.2376 0.0193963
-1.41397 1.9155 0.00770774
-0.972691 1.4727 0.00752771
-0.514504 1.01283 -0.00216046
-0.981573 2.64706 0.0190395
-0.873403 2.39999 -0.011126
-0.744895 2.10806 -0.0200222
-0.628557 1.84437 -0.0175136
-0.356787 1.22721 -0.0124033
-0.0544488 0.503288 -0.00268486
0.227895 -0.669561 -0.0622081
-0.17295 2.57237 0.0942373
-0.178515 2.57742 0.0387262
-0.147913 2.09398 0.0427965
-0.113941 1.42973 -0.030071
-0.090737 1.07157 -0.0136415
-0.0921679 0.202403 0.0288409
-0.103767 0.0886171 0.0476919
-0.137995 -0.148658 0.0136314
-0.185597 -0.468037 -0.0434846
-0.219525 -0.727543 -0.0511886
-0.247227 -0.935543 -0.0613354
-0.27656 -1.16343 -0.0641124
0.384705 1.86076 -0.0543025
0.319094 1.66147 -0.0445163
0.277339 1.53753 -0.0442089
0.239203 1.42247 -0.0398126
0.207219 1.32557 -0.0350672
-0.102071 0.449709 0.0199451
-0.230152 0.205222 0.0374728
-0.265045 0.135201 0.0608144
-0.468653 -0.201158 -0.00959578
-0.528725 -0.303874 -0.0196457
-0.682973 -0.580815 -0.00465354
-0.691619 -0.605564 0.024597
-0.781786 -0.779093 0.0696844
0.504581 1.18671 0.0980084
0.633513 1.36274 0.0334997
0.863213 1.67588 -0.0795161
0.726977 1.50467 -0.0671776
0.320324 0.99571 -0.0352715
0.29297 0.961834 -0.033969
-0.355298 0.260258 0.0416352
-0.453978 0.177159 0.0415284
-0.715807 -0.0309494 -0.0111887
-0.808873 -0.107249 -0.0191324
-1.00199 -0.269207 -0.0185666
-1.65084 -0.821539 0.0236441
-1.64903 -0.831551 0.0776859
2.12438 1.6999 -0.0182451
1.43516 1.3201 0.019561
1.2412 1.21681 0.00942582
1.62511 1.44571 -0.111998
1.28908 1.25865 -0.0824645
1.13825 1.17716 -0.0833161
1.00565 1.10493 -0.0806484
0.873804 1.03176 -0.0701023
0.776363 0.978044 -0.0642417
0.462835 0.803924 -0.0367249
0.318133 0.725146 -0.0304931
-0.0980988 0.514614 -0.00443119
-0.438381 0.379189 0.0480578
-1.03458 0.188315 0.00521541
-0.924501 0.209994 0.105584
1.39057 0.16684 -0.0907948
1.22386 0.20494 -0.087871
1.05833 0.242461 -0.0762217
-0.279644 0.591046 0.0624434
-0.34365 0.618194 0.0653724
-0.421446 0.651621 0.0632667
-0.476129 0.675326 0.0536247
-0.6652 0.757455 0.0163316
-1.11499 0.952702 -0.00754866
-1.24509 1.00921 -0.000873029
-1.42809 1.08877 0.00431973
-1.71069 1.21171 0.00618285
-1.73777 1.22358 0.101268
-0.354431 0.766684 0.0543102
-0.662888 1.05421 -0.0213453
-0.743011 1.13052 -0.027301
-1.069 1.44359 -0.0332875
-1.25593 1.62321 -0.0373276
-1.57697 1.93071 -0.0531146
-1.91218 2.25458 -0.0479788
-1.97622 2.32401 0.012499
-1.98252 2.33902 0.0821704
-0.0736962 0.499023 0.0351329
-0.521733 1.37322 -0.0333178
-0.574763 1.48264 -0.0335799
-0.662819 1.66062 -0.0435232
-0.754758 1.85007 -0.0453097
-0.893923 2.13509 -0.052611
-1.06258 2.48436 -0.0525078
-0.170194 1.33637 -0.0404957
-0.180353 1.44667 -0.0475068
-0.189282 1.55895 -0.0493078
-0.190265 1.83617 0.0261481
-0.241727 2.40439 -0.00923598
-0.231812 2.58262 0.0778394
-0.26065 -1.17041 -0.021268
-0.221818 -0.752275 -0.0204974
-0.142015 0.0330225 0.00250256
0.247883 1.80413 -0.0646785
0.278898 1.89304 -0.0466751
0.34822 2.14305 -0.0514388
0.327377 1.99497 0.0134641
0.328988 1.9486 0.0586562
-0.792834 -0.7649 0.107
-1.05105 -1.15246 0.0185457
-0.709169 -0.589221 0.0610679
-0.71071 -0.572119 0.0315913
-0.716587 -0.561818 0.00102261
-0.646249 -0.439149 -0.000440478
-0.53439 -0.247136 0.00169095
-0.493005 -0.176223 0.00260103
-0.456449 -0.114258 0.00436914
-0.404115 -0.0237321 0.00400412
-0.382945 0.0129311 0.00371233
-0.350413 0.0706933 0.000933588
-0.311152 0.133031 0.00870684
-0.293905 0.166296 0.00276995
-0.244757 0.248225 0.00513315
-0.175244 0.355973 0.0179252
-0.156445 0.393088 0.00500768
-0.115052 0.442962 0.0314891
0.361967 1.04362 -0.0305226
0.515624 1.23725 -0.069141
0.599014 1.33761 -0.0808473
0.701471 1.46004 -0.0935926
0.818492 1.5973 -0.10317
0.967741 1.77162 -0.114016
0.514313 1.16642 0.0675047
0.49478 1.11754 0.119949
-1.66694 -0.818648 0.0564328
-1.51129 -0.677086 0.0275065
-1.29888 -0.496907 0.0181646
-1.11519 -0.343818 0.0163581
-0.992617 -0.240266 0.0118331
-0.813737 -0.0895849 0.0060662
-0.743615 -0.0311278 0.00513789
-0.680223 0.0209389 0.00607219
-0.62526 0.065757 0.00758606
-0.584336 0.0999991 0.00657645
-0.551916 0.127758 0.00420514
-0.511482 0.159723 0.00753567
-0.486677 0.18107 0.00533497
-0.280086 0.340735 0.0281817
0.662135 0.938912 -0.0636901
0.757498 0.994325 -0.0750211
0.877881 1.06417 -0.0891075
1.00129 1.13328 -0.0966707
1.18244 1.23659 -0.113046
1.39972 1.35859 -0.127437
1.76849 1.56918 -0.161758
1.28683 1.25752 -0.0157079
1.33147 1.26929 0.018017
2.13592 1.72305 -0.0414927
2.17726 1.72329 0.0191585
-1.04636 0.196118 0.0949922
-1.05416 0.202012 0.0674313
-0.725585 0.314644 0.0106164
-0.624608 0.343969 0.0106114
-0.58415 0.355734 0.0104235
-0.512122 0.376021 0.0121548
0.793482 0.602054 -0.0659032
1.06027 0.634206 -0.0963046
1.21927 0.651621 -0.107771
1.44611 0.677252 -0.127204
1.74181 0.709841 -0.149419
2.1646 0.756079 -0.17985
-1.12464 0.554365 0.0873045
-1.0804 0.567965 0.010664
-0.979159 0.561389 0.00680587
-0.887202 0.554869 0.00567713
-0.537369 0.527104 0.0129876
-0.392972 0.511985 0.0315857
-1.64307 1.22625 0.0909079
-1.61952 1.22178 0.0468155
-1.41964 1.12849 0.0294728
-0.984602 0.922704 0.00809315
-0.884258 0.874747 0.00594282
-0.477497 0.677037 0.0149761
-1.97798 2.45824 0.0763361
-1.94412 2.4286 0.00652918
-1.59444 2.06439 -0.0118071
-0.91606 1.35426 -0.00728798
-0.460796 0.876353 -0.00181821
-0.0722373 0.44867 0.00322476
0.635999 -0.617306 -0.0603642
-0.960431 2.63174 0.0276577
-0.91479 2.51712 -0.0214232
-0.489707 1.47685 -0.0173476
0.0577399 -0.196242 0.0017494
0.134376 -0.58552 -0.0473734
0.2323 -1.06741 -0.0504527
-0.0887955 2.56545 0.0861268
-0.0936705 2.57089 0.0295691
-0.0907238 2.11616 0.0275456
-0.0936298 1.62563 -0.0419008
-0.0922358 1.47571 -0.0365029
-0.140325 0.131416 0.0332486
-0.150089 0.0692119 0.0461881
-0.157629 0.02479 0.0512812
-0.160909 -0.00265074 0.0670052
-0.279022 -0.588328 -0.0263705
-0.339467 -0.913106 -0.0310232
-0.240651 -0.457601 0.105638
0.373266 1.81693 0.105705
0.3679 1.81479 0.0679446
0.362215 1.8117 0.0302968
0.363847 1.84878 -0.0537143
0.217369 1.39975 -0.046647
0.157994 1.21678 -0.0403584
-0.110144 0.436477 -0.00310212
-0.256681 0.141499 0.0341156
-0.390189 -0.0960099 0.0206981
-0.434634 -0.173614 0.011578
-0.597436 -0.455919 -0.0286214
-0.670784 -0.58672 -0.032846
-0.665491 -0.585831 0.000123322
-1.15619 -1.49259 0.0966278
0.662159 1.31357 -0.0702164
0.588042 1.22967 -0.0699523
0.437313 1.05525 -0.0493708
0.384 0.993648 -0.0423479
0.349022 0.95421 -0.0425378
0.308945 0.907748 -0.0361865
0.275284 0.868797 -0.0310654
-0.184384 0.37915 0.0201271
-0.646769 0.016881 0.0205779
-0.972276 -0.230463 -0.00331688
-1.24236 -0.439961 0.00594702
-1.47753 -0.621449 0.00824291
-1.68988 -0.788033 0.028624
-1.68169 -0.789729 0.0824765
1.35593 1.20339 0.0693179
1.914 1.51951 -0.112735
1.56292 1.33285 -0.102803
1.06452 1.06604 -0.0729986
0.807448 0.928917 -0.061332
0.54981 0.790316 -0.0388315
-0.466154 0.319438 0.0522954
-0.571534 0.286917 0.0383251
-0.637798 0.266342 0.0311908
-0.846982 0.201689 0.00655785
-0.93366 0.1739 0.00745484
-0.954908 0.160786 0.0777182
-0.95767 0.157751 0.102148
-0.511509 0.4699 0.0536062
-0.590114 0.476783 0.0394928
-0.895869 0.503174 0.00459841
-1.06005 0.515561 0.0711326
-0.65538 0.682087 0.0166913
-0.7635 0.730619 0.000919461
-1.11866 0.892122 -0.0154563
-1.8063 1.20709 -0.0164646
-1.77398 1.19553 0.0376561
-1.78573 1.20389 0.0862314
-0.925406 1.27285 -0.025432
-1.0636 1.41615 -0.0278609
-1.27059 1.63024 -0.0347492
-1.60062 1.97128 -0.0479506
-1.9363 2.32285 -0.0375484
-1.9678 2.36859 0.0285884
-0.449124 1.2026 -0.0310497
-0.497202 1.3131 -0.0380371
-0.548655 1.43372 -0.0412432
-0.627934 1.61673 -0.0517315
-0.713587 1.81865 -0.0554603
-0.850106 2.13745 -0.0673213
-1.00372 2.50337 -0.067635
-1.04524 2.69508 0.101126
0.1034 -0.52629 0.0692638
-0.0530399 0.094655 -0.0141782
-0.156684 1.35773 -0.053957
-0.16403 1.6103 -0.0612864
-0.165544 1.74267 -0.0566053
-0.17111 2.35483 -0.0307404
-0.167679 2.56592 -0.00240758
-0.4314 -1.12554 -0.00147513
-0.26521 -0.288288 0.00350961
-0.253149 -0.227477 0.0037038
-0.243105 -0.176382 0.00351778
-0.235256 -0.134799 0.00221753
-0.222178 -0.101385 0.00463668
-0.204197 -0.0049856 0.00545868
-0.200288 0.0181561 0.00416249
-0.171009 0.166475 0.00860268
-0.147773 0.262418 0.023514
-0.137984 0.321432 0.0117849
0.226373 1.37884 -0.0712173
0.272903 1.5015 -0.0776396
0.401894 1.83743 -0.0907843
0.409655 1.82288 -0.0494269
0.425899 1.79813 0.0299581
-0.685331 -0.575759 0.0841736
-0.695386 -0.541479 -4.18723e-05
-0.448662 -0.124017 0.00814444
-0.432977 -0.0936669 0.00219837
-0.346212 0.0497184 0.00973502
-0.323693 0.0898786 0.0063571
-0.25771 0.19608 0.0149323
-0.233912 0.229347 0.0264974
0.491613 1.15952 -0.0714862
0.558392 1.18207 0.0442664
-1.7533 -0.776405 0.0845844
-1.44621 -0.533153 0.0259765
-1.22992 -0.37491 0.0216375
-0.963768 -0.17933 0.0136422
-0.865967 -0.108102 0.0124083
-0.791668 -0.0535615 0.0101527
-0.659612 0.0409086 0.0130334
-0.514672 0.146741 0.00914899
-0.417179 0.216222 0.0104998
0.526706 0.742284 -0.0308973
0.6639 0.81469 -0.0630781
0.787205 0.87676 -0.0816685
1.04165 0.998623 -0.0987607
1.25496 1.10222 -0.118132
1.52332 1.23103 -0.137334
1.39914 1.15287 -0.064851
-1.01689 0.178681 0.0911696
-0.771952 0.260483 0.0120124
-0.507677 0.327058 0.0156758
-0.477123 0.334324 0.0176679
-0.360099 0.361066 0.0289403
-0.113733 0.419682 -0.00027892
0.918021 0.513495 -0.090503
1.05821 0.524318 -0.102091
1.218 0.535835 -0.11132
1.51286 0.560079 -0.143113
1.85811 0.586251 -0.169498
-1.10187 0.532784 0.0690359
-0.819113 0.50786 0.0095678
-0.696217 0.492891 0.00924551
-0.654127 0.488089 0.00671032
-0.603263 0.48133 0.00993374
-0.457515 0.461549 0.0205384
-1.67547 1.21934 0.115622
-1.66189 1.21641 0.0695187
-1.3836 1.07619 0.0183353
-1.23968 1.0024 0.0057672
-0.980882 0.868232 -0.00113431
-0.619783 0.679493 0.00193846
-2.00031 2.47973 0.0758092
-1.95733 2.43274 0.0059801
-1.33683 1.75158 -0.0199533
-0.526994 0.86129 -0.00592908
0.379418 -0.396839 -0.0537648
0.506212 -0.603392 -0.0623779
0.634732 -0.813581 -0.084737
0.770132 -1.03434 -0.0964029
-0.951605 2.68253 0.101692
-0.954203 2.67723 0.0374377
-0.942519 2.63405 -0.0226975
-0.812455 2.27995 -0.0377914
-0.695335 1.96334 -0.039324
-0.594961 1.69357 -0.0321963
-0.532383 1.52435 -0.0324163
-0.483355 1.39171 -0.0324005
-0.345896 1.02236 -0.016838
-0.294972 0.884187 -0.0140235
-0.247896 0.75981 0.00532764
-0.0561709 0.0587798 0.0263817
-0.0375127 -0.0303811 0.0536664
0.0556093 -0.611157 -0.0411785
0.0780337 -0.74042 -0.0442988
0.123534 -0.990931 -0.0286037
0.0708853 -0.625157 0.093616
-0.0965005 2.4836 0.0852849
-0.10099 2.05805 0.0697737
-0.106722 2.1507 0.0145427
-0.108758 1.82397 0.0153705
-0.1191 1.22912 -0.0370043
-0.11987 0.87815 -0.017515
-0.119642 0.837104 -0.0121155
-0.169846 0.139337 0.0300152
-0.178877 0.092797 0.0295762
-0.213732 -0.0962987 0.038688
-0.226075 -0.155467 0.0322099
-0.290941 -0.450603 -0.0239438
-0.414069 -1.06905 -0.0438201
-0.267008 -0.411893 0.100178
-0.459428 -1.39075 0.0896268
0.422841 1.7687 0.00184852
0.435838 1.81908 -0.046883
0.394995 1.72371 -0.0668007
0.189293 1.20002 -0.046927
0.156229 1.11465 -0.0401396
0.0917193 0.950524 -0.0325764
-0.271665 0.157342 0.0436982
-0.288901 0.132228 0.0359649
-0.331613 0.0635314 0.04131
-0.749553 -0.576835 -0.00731125
-0.716096 -0.541723 0.0622582
0.541068 1.10669 -0.0613185
0.409609 0.966139 -0.0478813
0.355069 0.907375 -0.0395746
0.318399 0.868627 -0.0380921
0.282944 0.830785 -0.0344321
-0.476302 0.138544 0.0469609
-0.575224 0.0694064 0.0335974
-1.11197 -0.30838 -0.0133806
-1.67194 -0.711031 0.00683701
-1.76937 -0.785691 0.0468369
-1.75314 -0.781016 0.101599
1.81645 1.36311 -0.112124
1.20447 1.05776 -0.083038
0.585378 0.74818 -0.0447758
0.465948 0.688374 -0.0356327
-0.581685 0.261565 0.0356887
-0.640002 0.245333 0.0294804
-0.831514 0.192461 0.00409737
-0.969283 0.149877 0.0626279
-0.919258 0.160872 0.117946
1.14416 0.492077 -0.0778713
-0.398124 0.417818 0.0560787
-0.595899 0.437273 0.0429246
-0.792354 0.456762 0.0125136
-1.03919 0.481629 -0.00904971
-1.02651 0.48086 0.0201392
-0.325853 0.488026 0.0644514
-0.367406 0.508828 0.0667337
-0.70171 0.670648 0.0150623
-0.834601 0.734869 -0.00804576
-1.04159 0.838372 -0.0156872
-1.17562 0.905853 -0.0174407
-1.33652 0.98726 -0.0167249
-1.55004 1.09539 -0.0154835
-1.75464 1.20076 -0.00067395
-0.531075 0.811716 0.0215103
-0.804902 1.09699 -0.0258966
-0.893785 1.19352 -0.0276808
-1.00217 1.3117 -0.0284446
-1.15741 1.48015 -0.0326428
-1.41346 1.75617 -0.0461791
-1.71441 2.08469 -0.0483646
-2.02648 2.43156 -0.0295612
-1.99933 2.4238 0.0450807
-1.99816 2.44368 0.116726
0.602149 -0.818935 -0.0524766
0.308754 -0.35012 -0.0321127
-0.574538 1.40992 -0.04894
-0.630754 1.54957 -0.051133
-0.709916 1.74432 -0.0570506
-0.81028 1.99332 -0.0618424
-0.94722 2.33445 -0.0666987
-1.04877 2.60652 -0.0442912
-1.0509 2.6545 0.0138254
-1.03309 2.65615 0.0770267
0.0295208 -0.522437 0.0315138
-0.0363299 -0.25828 -0.016054
-0.174269 1.72441 -0.0549456
-0.158849 2.17237 -0.0102492
-0.127573 2.08525 0.0875997
-0.564644 -1.55137 0.0784946
-0.459393 -0.932403 -0.0128372
-0.422905 -0.765916 -0.0136733
-0.289953 -0.178744 -0.00523371
-0.273994 -0.105476 -0.00647151
0.215582 1.30919 -0.068054
0.262378 1.42094 -0.0749411
0.314226 1.54104 -0.0781452
0.391272 1.72544 -0.0901931
0.435153 1.80932 -0.0714996
0.43985 1.7845 -0.0286649
-0.786101 -0.55219 0.0934788
-1.00413 -0.822148 0.015125
-0.819111 -0.547227 0.00134361
-0.750911 -0.446491 -0.00278533
-0.675352 -0.33988 0.00136212
-0.582384 -0.205375 0.000373393
-0.534582 -0.139667 0.00589427
-0.511121 -0.103753 0.0019829
-0.456271 -0.0262603 0.00425443
-0.438064 0.000815779 0.00245699
-0.41279 0.0346144 0.00680053
-0.354839 0.1174 0.00643176
-0.274511 0.218915 0.0290023
0.379272 0.945489 -0.0427952
0.47786 1.05306 -0.0714331
0.573834 1.15389 -0.0902411
0.597337 1.16783 -0.0697592
0.602828 1.16088 -0.041194
0.715724 1.27377 -0.0501565
0.672976 1.19894 0.0278002
0.6556 1.16742 0.0620192
-1.7122 -0.640547 0.104671
-1.7832 -0.668288 0.0492607
-1.61892 -0.551943 0.0217534
-1.37829 -0.39331 0.0166115
-1.1449 -0.243692 0.0242256
-1.06889 -0.189566 0.0103379
-0.960019 -0.118271 0.00917393
-0.874575 -0.0621734 0.00772062
-0.815145 -0.0220029 0.00309071
-0.746256 0.022125 0.00509396
0.814856 0.826638 -0.0822228
0.935487 0.8779 -0.0907446
1.10054 0.94866 -0.104746
1.34538 1.05458 -0.129103
1.64586 1.18255 -0.151539
-0.880325 0.238875 0.117804
-0.933809 0.248233 0.0199495
-0.820955 0.27321 0.00784725
-0.70895 0.295649 0.00697029
-1.15796 0.569166 0.0746327
-0.804794 0.517886 0.0069578
-0.339009 0.435282 0.0238715
-1.05809 0.962759 -0.00258002
-0.859496 0.842137 -0.00383955
-1.93604 2.6759 0.057389
-1.83157 2.53926 -0.00553057
-1.51221 2.13524 -0.0212514
-1.22316 1.77096 -0.0168792
-1.03792 1.53732 -0.015594
0.344852 -0.519104 -0.0559328
0.40554 -0.635312 -0.0617571
0.598939 -1.00643 -0.0846768
-0.829598 2.65619 0.0619712
-0.741314 2.3602 0.0291047
-0.742105 2.34321 -0.0239925
-0.654401 2.05721 -0.0340136
-0.580647 1.81854 -0.0371623
-0.521514 1.62789 -0.0374793
-0.284245 0.869877 -0.0126815
-0.0969125 0.0828858 0.0213544
-0.0432646 -0.442775 -0.0294188
-0.0312112 -0.562088 -0.0406499
-0.021238 -0.644774 -0.0359409
-0.0183506 -0.555655 0.0640532
0.00208592 2.02319 0.10848
-0.0786982 1.22209 -0.0366595
-0.173239 0.253645 0.0227349
-0.231541 0.0200441 0.0331818
-0.281991 -0.162189 0.0238525
-0.315832 -0.274323 0.00131688
-0.352127 -0.397257 -0.0181789
-0.507428 -0.957287 -0.0414784
-0.650376 -1.53802 0.0535221
-0.582938 -1.32681 0.119729
0.427703 1.57384 0.0531652
0.612506 2.00666 -0.0585432
0.51428 1.79843 -0.0622468
0.354211 1.45403 -0.0532931
0.252233 1.234 -0.0453792
0.17987 1.0769 -0.0365073
-0.318252 0.131867 0.0410531
-0.344148 0.0958909 0.0408099
-0.455681 -0.0562411 0.0319372
-0.49791 -0.112885 0.0253183
-0.752837 -0.45231 -0.0234776
-0.830028 -0.558791 -0.0225935
-0.930174 -0.696706 -0.0221754
-0.970215 -0.766452 0.03986
-0.816584 -0.570366 0.104524
0.730721 1.18867 0.0615322
1.27244 1.72129 -0.101607
0.73012 1.20899 -0.0676725
0.635162 1.11959 -0.0634029
0.480703 0.973234 -0.050367
0.422086 0.917604 -0.0447285
0.363813 0.861593 -0.0347141
0.3258 0.825804 -0.032566
0.294081 0.796111 -0.0316657
-0.331622 0.259765 0.0608507
-0.450411 0.184848 0.0518546
-0.527762 0.136907 0.0416017
-0.959311 -0.130501 -0.00956935
-1.18121 -0.271618 -0.00367203
-1.60993 -0.542776 -0.0029422
-1.82036 -0.678119 0.0176007
-1.74647 -0.638216 0.0776102
-0.463898 0.446312 0.0568865
-0.867683 0.518102 0.00705332
-1.03241 0.547515 -0.0138885
-1.12923 0.567039 0.0187135
-1.18162 0.57774 0.0378904
-0.351898 0.518877 0.0667623
-0.369936 0.5296 0.0655409
-0.388913 0.54099 0.0648628
-0.450686 0.577088 0.0551811
-1.05801 0.936251 -0.0238736
-1.36467 1.12399 -0.0263591
-1.5439 1.23536 -0.0182536
-1.60564 1.28677 0.0629966
-1.61315 1.29898 0.108224
-0.598045 0.972629 -0.0163689
-0.745133 1.16248 -0.0356227
-0.824139 1.26729 -0.0385033
-0.920412 1.39559 -0.0406697
-1.05843 1.57841 -0.0469609
-1.26166 1.84705 -0.0580102
-1.56594 2.24993 -0.0731075
-1.88371 2.6797 -0.0653144
-1.89855 2.72698 0.00638109
-1.7744 2.59275 0.0914637
0.487469 -0.958334 -0.0383868
-0.404773 1.25076 -0.0407912
-0.438153 1.36686 -0.0475217
-0.476121 1.50179 -0.0527066
-0.577429 1.86906 -0.0604724
-0.63012 2.07297 -0.0531707
-0.622271 2.09266 -0.00965708
-0.591131 2.03611 0.0429233
-0.754317 2.63553 0.0361561
-0.738629 2.64434 0.0954323
-0.11479 -0.296884 -0.00764671
-0.139939 0.123373 0.00560308
-0.0731427 1.24061 -0.0449177
-0.0621312 1.36024 -0.0561493
0.00106126 1.82563 -0.038788
0.0255654 1.82542 0.0350755
0.0645432 1.97684 0.0956062
0.136504 2.5343 0.103764
-0.647361 -1.0217 -0.000187665
-0.587425 -0.840721 -0.00503159
-0.539936 -0.69777 -0.00850001
-0.497672 -0.57341 -0.0088805
-0.335478 -0.107133 -0.000963509
-0.321105 -0.0680178 0.0016914
-0.310109 -0.036789 0.00235835
-0.291822 0.0155524 0.0028834
0.321735 1.28385 -0.0728149
0.376713 1.38106 -0.0764433
0.454509 1.52192 -0.0866794
0.534744 1.66165 -0.0888602
0.544689 1.65406 -0.0512712
0.554017 1.64558 -0.013984
0.564552 1.58951 0.0984806
-1.28742 -0.884351 0.0195925
-1.10451 -0.674758 0.0155793
-0.894401 -0.430556 0.00351673
-0.633002 -0.133495 0.00198624
-0.591841 -0.0869194 0.00199598
-0.557318 -0.0476974 0.00158203
-0.528798 -0.0149314 0.000375837
-0.500756 0.0165125 0.000798166
-0.444252 0.0771241 0.00745973
-0.40672 0.118809 0.00845534
-0.391947 0.135614 0.00784808
-0.35489 0.173654 0.015433
-0.339428 0.189538 0.0184675
-0.324013 0.204924 0.0224614
-0.294095 0.233667 0.0326367
-0.276651 0.252308 0.0338756
0.443311 0.883465 -0.0409084
0.547138 0.972212 -0.0656198
0.749562 1.13641 -0.0899802
0.860425 1.22315 -0.0947676
1.30766 1.58306 -0.141317
-1.79458 -0.418287 0.0346424
-1.53776 -0.287062 0.0232228
-1.35126 -0.191616 0.0142814
-1.19032 -0.110477 0.0106868
-1.06507 -0.0473967 0.00799882
-0.883259 0.0440756 0.00408819
-0.809758 0.0805145 0.00424841
-0.698485 0.135853 0.00356275
-0.651822 0.158753 0.00421938
-0.605336 0.180851 0.00735524
-0.530358 0.21637 0.0125833
-0.786896 0.355778 0.000565201
-0.725336 0.360372 0.00256777
-0.673683 0.364242 0.00399828
-0.444451 0.378384 0.025841
-1.89214 0.941445 0.0967515
-1.89642 0.947573 0.046636
-1.76997 0.911557 0.0126642
-1.52198 0.835351 0.00435442
-1.33048 0.776339 -0.000734627
-1.05208 0.690098 -0.004439
-0.62345 0.555575 0.00261647
-0.399452 0.482218 0.0346271
-2.04971 1.87746 0.0803966
-1.70055 1.60911 -0.000404358
-1.41759 1.39098 -0.00463763
-1.22796 1.24476 -0.00961408
-0.870165 0.968583 -0.0145303
-0.790154 0.906739 -0.0138861
-0.570708 0.736791 -0.00658464
0.638942 -0.464352 -0.0751371
0.394974 -0.186231 0.0664427
-1.55495 2.7424 0.0789711
-1.53562 2.7018 0.00941592
-1.38244 2.44498 -0.0310714
-1.14574 2.0556 -0.035255
-0.73125 1.37561 -0.0252075
-0.515154 1.0201 -0.0223393
-0.478249 0.959583 -0.0195057
-0.418596 0.861807 -0.0136577
-0.532562 2.61123 0.0675024
-0.441 2.10585 0.0573197
-0.451119 2.12807 0.00792122
-0.443926 2.06356 -0.0298139
-0.372969 1.66893 -0.0408277
-0.343968 1.5111 -0.0398408
-0.30187 1.28209 -0.0376483
-0.237514 0.938243 -0.0223593
-0.219917 0.847276 -0.0128216
-0.146526 -0.656875 -0.0421051
-0.148326 -0.806756 -0.0483254
-0.150371 -1.15828 -0.0465634
-0.133198 -1.45314 0.0949411
0.17832 1.80836 0.0707272
0.163511 1.79088 -0.00310045
0.153187 1.76624 -0.0366349
0.0725352 1.39941 -0.0511115
0.0325933 1.20978 -0.0464388
0.00191021 1.06022 -0.0369031
-0.262314 0.0805328 0.0309958
-0.3336 -0.0930391 0.0394402
-0.385885 -0.207027 0.013654
-0.427171 -0.330395 0.0797211
0.494631 1.35066 0.0652113
0.867456 1.96902 -0.0874879
0.711989 1.72594 -0.08082
0.588888 1.53264 -0.0722624
0.492879 1.38155 -0.0641987
0.308468 1.09114 -0.047268
0.227323 0.962339 -0.0354596
-0.303473 0.206868 0.0455764
-0.378937 0.128212 0.0375346
-0.473944 0.0288351 0.0321045
-0.752096 -0.255098 -0.0142663
-0.842608 -0.349184 -0.0200645
-1.40018 -0.936272 -0.0129125
-1.14654 -0.685777 0.0728831
-1.42539 -0.979988 0.0808671
0.83744 1.06752 -0.0746146
0.71416 0.981174 -0.0637883
0.630872 0.923336 -0.0604446
0.380775 0.747974 -0.0355856
0.338661 0.718366 -0.0304672
-0.404633 0.265046 0.0495766
-0.440787 0.249668 0.0404898
-0.511205 0.217757 0.0433943
-0.720558 0.127456 0.00890595
-0.820588 0.0840587 -0.00412473
-1.15415 -0.0709332 0.0760088
-1.14739 -0.0704792 0.107204
1.07558 0.644511 -0.0702442
0.975113 0.623239 -0.0756633
0.847255 0.595705 -0.0671842
0.747548 0.574261 -0.0612318
-0.481821 0.375303 0.0547143
-0.633518 0.370915 0.0358457
-0.751104 0.367467 0.0505396
-0.739906 0.367684 0.0893394
-0.685321 0.369156 0.117129
-0.39679 0.466564 0.063782
-0.456026 0.484127 0.0558964
-0.516603 0.502586 0.0541003
-0.78043 0.580708 0.00848669
-1.02818 0.655614 -0.0159223
-1.47864 0.795646 -0.0153433
-1.72527 0.872594 -0.0130609
-2.07594 0.982068 -0.0097802
-2.18284 1.01916 0.0350196
-2.23231 1.03921 0.0892094
-0.78268 0.894973 -0.0204316
-0.970693 1.0468 -0.0290003
-1.08715 1.14187 -0.0299457
-1.79535 1.71866 -0.0444235
-2.13213 1.99762 -0.0309778
-2.05996 1.95504 0.0428933
-2.06363 1.97265 0.107647
-0.564372 1.11595 -0.0383504
-0.619171 1.2133 -0.0449362
-0.996163 1.89453 -0.0703948
-1.19233 2.25017 -0.0821014
-1.40908 2.6518 -0.0789557
-1.41242 2.69232 -0.0147569
-1.39984 2.7055 0.0530569
0.281963 -1.07747 -0.0120487
0.236772 -0.942223 -0.0248694
0.0278758 -0.243936 -0.0116991
-0.259139 1.21398 -0.0452507
-0.273102 1.32356 -0.0540273
-0.289018 1.45332 -0.0625358
-0.302881 1.58336 -0.0644305
-0.321487 1.75393 -0.0684146
-0.331179 1.8859 -0.056517
-0.336567 2.1986 0.0271147
-0.370923 2.58349 0.0415289
-0.315842 -1.1207 -0.00713494
-0.300127 -0.940503 -0.0135035
-0.215282 -0.116922 -0.00521877
-0.201205 0.0171451 -0.00457248
0.0703589 1.22115 -0.0530812
0.0995507 1.3277 -0.0624753
0.136482 1.46212 -0.0741206
0.214011 1.71504 -0.0732386
0.256178 1.84149 -0.0631977
0.298177 1.95801 -0.0450748
0.272487 1.8004 0.0188259
0.334838 1.93382 0.0797842
0.444715 2.27316 0.0968136
-0.97317 -1.17592 0.00773731
-0.657546 -0.583016 0.0332338
-0.632946 -0.506448 -0.00675607
-0.353505 0.0248778 0.0041016
-0.299929 0.125061 0.0067389
0.38453 1.12134 -0.0674347
0.530472 1.31383 -0.0860167
0.638635 1.45698 -0.100855
0.777 1.63893 -0.11763
0.913635 1.81187 -0.121231
0.492725 1.19493 0.0526939
0.484451 1.16926 0.0822452
0.492921 1.16714 0.106801
-1.32583 -0.512774 0.0185139
-1.16095 -0.382242 0.0136386
-1.03524 -0.282752 0.0099071
-0.932124 -0.201603 0.00798556
-0.591874 0.0647309 0.00406387
-0.465838 0.15948 0.0120376
0.686114 0.861941 -0.0860902
0.808284 0.92935 -0.103873
0.907982 0.980809 -0.106547
1.0581 1.06063 -0.11846
1.27679 1.17808 -0.139717
1.57332 1.33661 -0.166196
1.89962 1.50676 -0.18108
-0.992286 0.141041 0.0567369
-0.778829 0.217869 0.00274852
-0.710289 0.237297 0.0076324
-0.668815 0.25013 0.00573149
-0.628455 0.262222 0.00551492
-0.588364 0.27376 0.00729397
-0.447678 0.311473 0.025032
0.903831 0.538923 -0.0876326
1.05201 0.55733 -0.10158
1.17393 0.570079 -0.100821
1.48653 0.610389 -0.1379
-0.94504 0.469675 0.0990769
-0.74874 0.464256 0.00113407
-0.696915 0.4592 0.00129178
-0.332736 0.418932 0.0273713
-1.90056 1.21615 0.0861705
-1.83308 1.18787 0.0408076
-1.70293 1.1297 0.00773063
-1.08848 0.84501 0.00366187
-1.97284 2.39781 0.089383
-2.06472 2.49392 0.00637048
-1.73566 2.13589 -0.019592
-1.44047 1.81535 -0.0266789
-1.1654 1.51739 -0.0156025
-1.00337 1.3416 -0.0137388
-0.805805 1.12686 -0.0165372
-0.737133 1.0521 -0.0182308
-0.674723 0.984251 -0.0173323
0.547622 -0.694603 -0.0737719
0.653558 -0.864383 -0.0824746
0.805777 -1.1086 -0.0971817
-1.00704 2.6222 -0.0373648
-0.856032 2.23347 -0.0443802
-0.733176 1.91912 -0.0426032
-0.635196 1.66964 -0.0363541
-0.562053 1.48354 -0.0308157
-0.473879 1.25711 -0.0308011
-0.33904 0.913924 -0.0159696
-0.0697462 0.0667364 0.0258865
-0.0498876 -0.0224015 0.0481748
-0.0456286 -0.0308702 0.0693659
-0.00253901 -0.305669 0.000597954
0.182607 -1.33458 -0.0600499
0.233093 -1.59927 -0.0517536
-0.110058 2.20787 0.0719741
-0.117038 2.2428 0.0199053
-0.128265 1.73742 -0.0313793
-0.1309 1.62458 -0.0433752
-0.131993 1.48398 -0.0427136
-0.133095 1.26049 -0.0367058
-0.195665 0.0648327 0.0333944
-0.214303 -0.0372557 0.0417911
-0.246331 -0.187106 0.0268505
-0.274433 -0.309963 0.00315386
-0.30671 -0.454123 -0.0200244
-0.27594 -0.397051 0.106959
-0.477764 -1.39415 0.0906811
0.407904 1.7411 -0.0692798
-0.472951 -0.131547 0.0195974
-0.53411 -0.221266 0.00444332
-0.700428 -0.467359 -0.0284608
-0.766752 -0.569337 -0.0270946
-0.755403 -0.561039 0.0069904
-0.72644 -0.534371 0.0738205
-0.72505 -0.539822 0.1027
0.406494 0.957671 -0.0445848
-0.38506 0.206446 0.0475303
-0.947846 -0.184003 -0.0196438
-1.36495 -0.479161 -0.0205032
-1.60034 -0.645826 -0.0194134
-1.79539 -0.786584 0.0020332
-1.78828 -0.788661 0.0567734
-1.78083 -0.790398 0.11106
1.24252 1.00642 -0.0910494
0.77804 0.797023 -0.0611844
0.685049 0.755127 -0.0553462
-0.891489 0.199772 0.107313
-0.86408 0.476912 0.0137721
-1.07825 0.503688 -0.0189206
-1.0843 0.505391 0.00717044
-1.07992 0.505844 0.0353509
-1.07477 0.506216 0.0631512
-0.680545 0.685549 0.010863
-1.2741 1.0173 -0.0281075
-1.4561 1.12116 -0.0268385
-1.62148 1.21765 -0.0121945
-1.63319 1.23831 0.0779272
-0.407364 0.705134 0.0406242
-0.459863 0.763347 0.0236656
-0.66782 1 -0.0258621
-0.745602 1.09161 -0.0353567
-0.816469 1.17767 -0.0364367
-0.912304 1.29329 -0.0403572
-1.2052 1.64713 -0.0517506
-1.48325 1.98112 -0.068681
-1.8228 2.39412 -0.0747677
-1.95522 2.57311 -0.0256954
-1.9842 2.63306 0.0444679
-1.97374 2.64674 0.119973
-0.455725 1.30242 -0.0465173
-0.551616 1.59796 -0.0630422
-0.611987 1.78912 -0.0684581
-0.699441 2.06369 -0.0788909
-0.792866 2.36788 -0.0791715
-0.856848 2.60125 -0.0542298
-0.854743 2.64976 0.00141144
-0.0252554 -1.06365 -0.0173401
-0.0936835 -0.339881 -0.00754502
-0.0818091 1.42677 -0.0630853
-0.0705715 1.55771 -0.0682058
-0.0592138 1.60257 -0.0473409
-0.0405421 1.84987 -0.0649899
-0.0288298 1.82772 -0.023245
0.000905097 1.91453 0.0398023
0.016122 1.94774 0.0752899
0.0714278 2.50708 0.0737814
-0.719113 -1.51374 0.111537
-0.596636 -0.988683 -0.00317836
-0.544144 -0.815838 -0.00694448
-0.375975 -0.285578 0.000913948
-0.356996 -0.226578 0.00239381
-0.299372 -0.0415676 0.000882119
-0.260727 0.0760478 0.00448456
0.210317 1.11452 -0.0466642
0.269735 1.23836 -0.0683943
0.320996 1.33698 -0.0753356
0.382041 1.45328 -0.0820499
0.460948 1.60406 -0.0914603
0.562855 1.79814 -0.102766
0.648323 1.91374 -0.0448636
0.552896 1.65789 0.0715918
0.543117 1.61202 0.111509
-0.845565 -0.449777 0.0600904
-0.774913 -0.336626 0.00334379
-0.703407 -0.251922 0.00559768
-0.657645 -0.195555 0.00260225
-0.377433 0.133713 0.0136268
0.471532 0.936529 -0.0520293
0.580577 1.03472 -0.0775872
0.780349 1.20399 -0.0970424
0.924406 1.32598 -0.110964
1.12159 1.49313 -0.130526
1.40764 1.73577 -0.159373
0.826195 1.19372 0.0253476
0.842788 1.19561 0.055094
-1.79001 -0.448318 0.0322322
-1.53516 -0.313185 0.0214054
-1.34112 -0.210701 0.0143754
-1.18139 -0.127181 0.0113038
-1.03923 -0.0542232 0.0131176
-0.885513 0.0280707 0.00315949
-0.812521 0.0656748 0.00331023
-0.646912 0.149978 0.00657174
-0.468814 0.237445 0.0196423
-1.90036 0.906777 0.102928
-1.89518 0.910151 0.0537741
-1.79566 0.88493 0.0165236
-1.54716 0.81367 0.00745469
-1.17234 0.705042 0.00438598
-1.07434 0.677219 -0.00311181
-2.0604 1.8427 0.0891452
-2.1584 1.91696 0.0139883
-1.73864 1.60262 0.00404382
-1.2538 1.23938 -0.00590315
-1.09362 1.11927 -0.00662971
-0.876449 0.956319 -0.00809088
0.779209 -0.596031 -0.0858002
-1.38601 2.46147 -0.0311143
-1.15028 2.07142 -0.0351436
-0.66011 1.26272 -0.0223106
-0.607177 1.17482 -0.0238563
-0.543726 2.60639 0.0700256
-0.446431 2.03096 -0.0220805
-0.372936 1.63605 -0.0307906
-0.141846 -0.67808 -0.0380405
-0.142662 -0.819336 -0.0413609
-0.143669 -0.999615 -0.0452243
0.196478 1.79587 0.10561
0.190117 1.79332 0.0680298
0.185495 1.7995 0.029172
0.151495 1.68537 -0.0252175
0.0388304 1.19579 -0.0428886
-0.294733 0.0097135 0.0378137
-0.337421 -0.0881157 0.0358711
-0.366222 -0.151047 0.0271897
-0.407954 -0.241372 0.0125686
0.836235 1.82431 -0.0803759
0.363626 1.12743 -0.048535
0.238049 0.941095 -0.0343149
0.208857 0.897958 -0.0314826
-0.517596 0.00527236 0.0274079
-0.746225 -0.214029 -0.0126774
-0.947154 -0.410455 -0.0269811
-1.05405 -0.516628 -0.0251025
-1.175 -0.637466 -0.0188825
-1.36644 -0.827037 -0.017961
-1.18323 -0.659311 0.0574775
-1.44977 -0.923915 0.0630524
-1.46247 -0.944925 0.11078
1.07398 1.18529 -0.0762178
0.931214 1.09156 -0.0734884
0.805795 1.00879 -0.0673347
0.483962 0.795719 -0.0448188
0.417339 0.75078 -0.032807
-0.335712 0.299335 0.0636819
-0.456246 0.249426 0.0555713
-0.587997 0.196139 0.0381407
-0.761574 0.126547 0.010409
-1.00136 0.0294945 -0.0154637
-1.12883 -0.0321712 0.099386
0.811117 0.577381 -0.0582353
-0.372105 0.379531 0.0646371
-0.406061 0.378704 0.0657188
-0.437122 0.378082 0.0604787
-0.458698 0.377609 0.0614424
-0.521781 0.376363 0.0585248
-0.758791 0.372055 0.0958122
-0.338469 0.46344 0.0724265
-0.419463 0.493731 0.0661625
-0.448198 0.504494 0.0633956
-0.533796 0.536289 0.0512026
-0.707952 0.600363 0.0180001
-0.818944 0.641682 0.00136915
-0.939975 0.687261 -0.0118038
-1.06184 0.73386 -0.0183509
-1.19346 0.784752 -0.0203268
-1.35224 0.846429 -0.0204321
-1.55671 0.926015 -0.0195705
-1.83478 1.03437 -0.0178977
-2.13069 1.15115 -0.00280705
-2.17 1.17229 0.0510422
-2.19022 1.1864 0.108088
-0.347822 0.573696 0.0620895
-0.869285 1.02136 -0.0287226
-0.959484 1.10271 -0.0291193
-1.0644 1.19794 -0.0273936
-1.23499 1.35056 -0.0338278
-1.41991 1.51839 -0.0315676
-1.80282 1.8604 -0.0491596
-2.11693 2.14911 -0.03173
-2.01682 2.07856 0.0469212
-2.01881 2.09725 0.112777
0.265692 -0.138365 0.0742148
-0.459833 0.982961 -0.00364462
-0.521875 1.09529 -0.0227301
-0.58307 1.20966 -0.0354345
-0.638371 1.31746 -0.0392919
-0.701871 1.44277 -0.041272
-0.915149 1.85954 -0.0556149
-1.08648 2.19555 -0.0654253
-1.27659 2.57706 -0.0618345
-1.30231 2.69971 0.0581182
-0.215693 1.18856 -0.037466
-0.252373 1.72003 -0.0656968
-0.263797 1.92047 -0.0691301
-0.231343 1.73558 0.00220177
-0.26013 2.14897 -0.0214608
-0.221922 1.88392 0.0547869
-0.2075 1.85908 0.0953438
-0.36357 -1.01047 -0.0129005
-0.321937 -0.702034 -0.0164129
-0.276201 -0.391147 -0.00919437
-0.194208 0.132486 0.0125918
0.132469 1.29705 -0.0602274
0.214649 1.54595 -0.0756345
0.313872 1.82277 -0.071331
0.355153 1.91871 -0.0508263
0.348197 1.84609 0.000826269
0.356926 1.82921 0.0413572
-0.718656 -0.569559 0.110277
-0.734441 -0.525423 0.000206888
-0.665049 -0.414318 0.00193474
-0.530146 -0.19752 0.00364769
0.393549 1.01853 -0.0522603
0.476572 1.11579 -0.0710582
-1.77018 -0.765307 0.0725505
-1.65215 -0.668704 0.0366718
-1.26602 -0.386585 0.0143096
-1.11959 -0.281333 0.0105705
-0.996469 -0.19374 0.00988802
-0.764799 -0.0281091 0.00574178
-0.705891 0.0132154 0.00677913
0.64357 0.784774 -0.0644293
0.759502 0.841855 -0.082141
1.01337 0.961771 -0.10323
1.20196 1.05095 -0.119304
1.48783 1.18725 -0.147659
1.75913 1.31137 -0.156264
-0.797707 0.264806 0.00941887
-0.451654 0.334048 0.0310085
1.18449 0.459709 -0.107962
1.42236 0.469011 -0.129173
-0.989373 0.518502 0.119531
-0.446122 0.446816 0.0290484
-1.59045 1.25317 0.0984484
-1.59466 1.25753 0.0519485
-1.24073 1.05063 0.0234069
-1.91764 2.66037 0.0488155
-1.83737 2.55387 -0.0164136
-1.23024 1.78437 -0.0250664
0.398917 -0.632765 -0.0528998
0.581959 -0.987143 -0.0705429
-0.794948 2.67612 0.109765
-0.797775 2.66167 0.0477297
-0.736301 2.43846 0.00882509
-0.725976 2.3839 -0.041139
-0.627661 2.05033 -0.0426123
-0.55442 1.80229 -0.0422438
-0.497527 1.61004 -0.0405639
-0.443204 1.4295 -0.0311826
-0.359683 1.14617 -0.0294756
-0.044117 -0.577544 -0.0349699
-0.0395409 -0.593652 -0.0124619
-0.0375961 -0.57027 0.0195138
0.00547081 1.81778 -0.00484297
0.00266564 1.85955 -0.0515193
-0.0420887 1.39888 -0.0468945
-0.242843 0.00450218 0.0449872
-0.27644 -0.105003 0.0382404
-0.294641 -0.162815 0.032125
-0.318614 -0.238427 0.0232237
-0.456657 -0.672202 -0.0299486
-0.346634 -0.378019 0.10896
-0.652231 -1.38905 0.0900079
0.487647 1.601 0.0655032
0.727069 2.11585 -0.0557473
0.613815 1.89353 -0.0629163
0.51848 1.7051 -0.0649359
0.262689 1.19211 -0.0467967
0.120052 0.904893 -0.0310253
-0.391328 0.0479906 0.0440041
-0.460519 -0.0383464 0.0298727
-0.554668 -0.156709 0.0149803
-0.83235 -0.505768 -0.0272253
-1.0285 -0.760564 -0.0204767
1.51503 1.77564 -0.123123
1.21205 1.52087 -0.103802
0.969976 1.31623 -0.0809584
0.824328 1.19394 -0.0727491
0.709416 1.09735 -0.0655238
0.623913 1.02579 -0.0620758
0.415001 0.848935 -0.0395811
0.367876 0.809088 -0.0345919
0.334945 0.781832 -0.0348561
-0.514293 0.172136 0.0502521
-0.757761 0.0421224 0.00734958
-0.871371 -0.0190892 -0.00718409
-1.19759 -0.199189 -0.00689173
-1.80859 -0.538162 0.0144784
-1.81086 -0.544576 0.0653862
-1.8032 -0.545544 0.117011
-0.340268 0.358753 0.0715619
-0.40344 0.351153 0.0630587
-0.697892 0.316499 0.033592
-0.824692 0.301973 0.0128659
-1.11628 0.267675 0.0113031
-1.12163 0.266529 0.0383591
-0.702807 0.52031 0.0264025
-1.33383 0.673711 -0.00872493
-1.56574 0.730817 -0.0129416
-1.18233 0.642319 0.0807252
-0.454901 0.601057 0.0524356
-1.06761 1.00973 -0.0245732
-1.36352 1.21488 -0.0219894
-1.60891 1.38445 -0.0233399
-1.62627 1.40506 0.0216879
-0.703659 1.21516 -0.0376509
-0.769598 1.31739 -0.0377787
-0.862585 1.46 -0.0417135
-1.18869 1.9574 -0.0624154
-1.4479 2.3558 -0.0725077
-1.66998 2.71015 -0.0526082
-1.65185 2.74727 0.0908464
-0.353516 1.39526 -0.0566634
-0.374871 1.51514 -0.05845
-0.405853 1.68257 -0.0648264
-0.441184 1.88014 -0.0685396
-0.46493 2.04075 -0.0557422
-0.461565 2.08885 -0.018532
-0.538933 2.61221 0.0223152
-0.200227 -1.42406 0.107593
-0.225414 -1.05081 -0.0121966
-0.218838 -0.870364 -0.0139503
-0.18319 -0.102986 8.61287e-06
0.0167192 1.19683 -0.0486165
0.0404954 1.31409 -0.062881
0.0664852 1.43213 -0.0713657
0.157384 1.78854 -0.0616785
0.337128 2.40326 0.0194353
0.26534 1.992 0.103333
-0.613974 -0.588002 -0.000812471
-0.400176 -0.118969 -0.00346106
-0.363926 -0.0434514 0.000598103
-0.349771 -0.0135286 0.00153336
0.378984 1.18261 -0.0689916
0.442512 1.2738 -0.0760094
0.518012 1.38128 -0.0828106
0.630929 1.54551 -0.0993217
0.762444 1.73316 -0.112129
0.923759 1.96044 -0.122729
0.502602 1.28331 0.0546069
0.507005 1.27339 0.0830705
-1.5522 -0.858907 0.0919735
-1.58076 -0.863393 0.0411955
-1.26927 -0.589958 0.0430038
-1.19632 -0.516218 0.0194177
-1.07736 -0.408116 0.0108597
-0.957268 -0.302239 0.0102125
-0.866503 -0.221892 0.00881317
-0.79758 -0.160302 0.00621477
-0.736713 -0.106428 0.00512576
-0.674737 -0.0532854 0.00824749
-0.6357 -0.0180912 0.00577012
-0.596458 0.016274 0.00577044
-0.443554 0.145919 0.0156335
0.576904 0.851865 -0.0635284
0.677963 0.915501 -0.0795815
0.901801 1.05133 -0.0993311
1.0632 1.14921 -0.113463
1.29228 1.28874 -0.135467
1.58907 1.46789 -0.158961
-1.06587 0.0794462 0.119742
-1.18538 0.0509409 0.0767755
-1.19267 0.0560731 0.0461213
-1.2086 0.0588862 0.0132375
-1.09345 0.0976405 0.00842145
-0.997234 0.129851 0.00496039
-0.466152 0.296749 0.0266929
0.810491 0.545471 -0.0799689
1.07883 0.583869 -0.104238
1.26657 0.61037 -0.119457
1.55027 0.651272 -0.146758
-0.961666 0.443751 0.0737453
-0.979865 0.452321 0.0221342
-0.811227 0.445248 0.0013375
-2.01257 1.27116 0.0769756
-0.985273 0.797826 0.000765026
-1.97476 2.34001 0.0920529
-2.02048 2.38509 0.0153503
-1.78099 2.13152 -0.0218848
-1.45354 1.78673 -0.0243304
-1.19388 1.51363 -0.0173084
-0.905839 1.21031 -0.0144172
-0.815467 1.115 -0.0150055
-0.993283 2.57266 -0.0373178
-0.844991 2.19365 -0.0431926
-0.629837 1.64802 -0.0349483
-0.511989 1.3488 -0.0304956
0.0524722 -0.591604 0.0199051
0.0555452 -0.571 0.0760873
0.0592109 -0.574197 0.10116
-0.0953289 2.57291 0.0875065
-0.103374 2.55844 0.03134
-0.109794 2.21085 0.0152439
-0.125816 1.61239 -0.046142
-0.129142 1.24855 -0.0368217
-0.220682 -0.0664311 0.0612963
-0.279314 -0.388782 0.114461
-0.534133 -1.55981 0.0389899
-0.485521 -1.37378 0.1047
0.464057 1.76653 0.110437
0.457264 1.76531 0.0715532
0.405436 1.69713 -0.0701943
0.332464 1.52152 -0.0627646
0.193424 1.18675 -0.0474273
0.111107 0.987266 -0.0340612
-0.451278 -0.0860346 0.0254965
-0.649807 -0.370104 -0.018163
-0.785317 -0.571373 -0.0191297
0.622265 1.14072 -0.0665175
0.536554 1.05563 -0.0584222
-0.874958 -0.0981443 -0.00859606
-1.24336 -0.340842 -0.0138058
-1.65107 -0.611083 -0.00417104
-1.85035 -0.745506 0.0201253
-1.12787 0.974682 -0.0266126
-1.25724 1.05406 -0.0230083
-1.43602 1.16336 -0.0209405
-1.60688 1.26981 -0.0069162
-0.658061 1.02779 -0.0249776
-0.72686 1.11445 -0.031075
-0.807894 1.21725 -0.036369
-0.894004 1.32833 -0.0370066
-1.0046 1.471 -0.0380268
-1.1759 1.68993 -0.0456704
-1.44484 2.03269 -0.0605499
-1.72903 2.4022 -0.0564229
-1.93594 2.68403 -0.0186509
-1.96813 2.75208 0.0529952
0.544946 -1.06986 -0.044309
0.425643 -0.819485 -0.0308085
0.293951 -0.548426 -0.0247101
0.256569 -0.475235 -0.029204
-0.456797 1.44742 -0.0492597
-0.546481 1.7764 -0.0562854
-0.620751 2.04546 -0.0653419
-0.610136 2.05601 -0.0213425
-0.635707 2.18612 0.00796875
-0.576455 2.03546 0.0707898
-0.735155 2.63609 0.0728386
-0.104374 -0.887863 -0.023688
-0.122777 -0.514179 -0.0204244
-0.057213 1.19383 -0.0398051
-0.0437342 1.32127 -0.0566214
-0.0290093 1.43151 -0.0621378
0.0339304 1.85193 -0.0637819
0.0635969 1.89179 0.00543323
0.0760144 1.88562 0.0444177
0.128382 2.09369 0.104951
-0.612363 -0.71924 0.0120083
-0.573265 -0.614236 0.00346479
-0.464238 -0.339949 -0.000526249
-0.432621 -0.264615 0.00280842
-0.413645 -0.21549 0.000440598
-0.394033 -0.167056 0.000520617
-0.361892 -0.0877452 0.000547141
-0.32482 0.00277835 0.00122491
0.292979 1.13261 -0.0691383
0.346226 1.21798 -0.0786521
0.414909 1.32867 -0.0919628
0.490238 1.44689 -0.101352
0.606538 1.60824 -0.0810295
0.511998 1.39964 0.0301591
-1.43322 -0.930531 0.0475483
-1.32777 -0.808036 0.0197721
-1.16354 -0.63358 0.0114732
-0.936181 -0.392783 0.00131768
-0.837963 -0.291674 0.0031085
-0.767901 -0.218491 0.00200319
-0.71173 -0.15954 0.00042513
-0.661606 -0.107475 0.000117183
-0.611097 -0.0566095 0.00325191
-0.544851 0.0124502 0.00194579
-0.515406 0.0425833 0.00250366
-0.48583 0.0719537 0.00500205
-0.456185 0.100513 0.00941908
0.623261 0.980544 -0.0784102
0.706969 1.03968 -0.0837134
0.820667 1.12115 -0.0941797
0.944855 1.20826 -0.100466
0.987539 1.22836 -0.0755835
0.980966 1.19628 0.000243574
-1.13287 -0.0174436 0.118681
-1.13892 0.00433213 0.032388
-1.03358 0.056572 0.000460505
-0.845664 0.13274 0.00424576
-0.673297 0.202897 0.00591087
-0.634196 0.219102 0.00500911
-0.586432 0.237229 0.0100342
-0.539074 0.254519 0.0174904
-0.914089 0.404209 0.0769805
-0.636813 0.417441 0.00595367
-0.535883 0.415198 0.0202953
-1.94427 1.12011 0.0926165
-1.7861 1.06629 0.00801012
-1.54489 0.972777 -0.00184998
-1.34051 0.893019 -0.00513709
-1.18187 0.830996 -0.00691304
-1.0595 0.783152 -0.00874576
-0.963997 0.745861 -0.0111554
-0.870162 0.708756 -0.00865844
1.05927 -0.322979 -0.0995315
-2.00338 2.16693 0.0655766
-1.9922 2.15654 -0.00198814
-1.68005 1.86491 -0.0207292
-1.29783 1.50779 -0.00324547
-1.14456 1.36449 -0.011599
-0.998358 1.22777 -0.010864
-0.895788 1.13179 -0.0130123
-0.80729 1.04895 -0.0126359
-1.2623 2.69005 0.0801076
-1.25134 2.65771 0.0150556
-1.13704 2.42303 -0.0229584
-0.955438 2.05915 -0.0272109
-0.817954 1.78421 -0.026565
-0.630177 1.40948 -0.0196141
-0.0472621 0.117923 0.0172753
0.00208642 -0.0394012 0.0728253
0.125488 -0.511236 0.0264177
0.136096 -0.543193 0.0451984
0.161293 -0.632093 0.055553
-0.210015 1.85913 0.113483
-0.213782 1.84518 0.0763259
-0.218258 1.84017 0.0384544
-0.217839 1.67512 -0.0428891
-0.206868 1.51524 -0.0390739
-0.191889 1.29292 -0.0352466
-0.18641 1.21064 -0.0339976
-0.164907 0.912348 -0.014791
-0.161768 0.871028 -0.010471
-0.160716 0.846858 -0.0132716
-0.180055 -0.0407398 0.0507818
-0.202373 -0.186538 0.0246785
-0.220246 -0.302602 0.00336006
-0.277473 -0.706187 -0.0360218
-0.298538 -0.865986 -0.0402642
-0.316917 -1.01613 -0.0342396
-0.348995 -1.39857 0.0855808
0.359887 1.832 0.0909786
0.358924 1.84865 0.0494656
0.142376 1.24466 -0.0401437
0.0918854 1.08988 -0.0307855
-0.307366 0.0887264 0.0404215
-0.345208 0.0208741 0.0428972
-0.704288 -0.589923 -0.0262181
-0.693362 -0.581116 0.00788268
-0.665869 -0.553063 0.0747763
-1.18718 -1.4737 0.0920028
0.267609 0.863785 -0.0328282
0.239617 0.832077 -0.0309625
-1.59808 -0.695789 -0.0072512
1.26453 0.49988 -0.0840198
1.0849 0.488115 -0.074431
0.93556 0.478292 -0.0640475
-1.09674 0.526843 0.00477421
-0.440222 0.58126 0.0603661
-0.582498 0.655664 0.0394023
-0.833584 0.785726 -0.0123043
-0.948312 0.846539 -0.0234727
-1.26914 1.02162 -0.0114977
-1.51359 1.15323 -0.0196956
-1.646 1.22771 0.00323215
-1.63337 1.23191 0.0971229
-0.311295 0.633479 0.066539
-0.459441 0.813209 0.0310692
-0.704015 1.09609 -0.0284093
-0.857784 1.28371 -0.0333785
-1.11664 1.5996 -0.0428492
-1.36907 1.9052 -0.0607451
-1.66266 2.26529 -0.0666125
-1.9291 2.60046 -0.0449789
-1.95974 2.65978 0.0247396
-1.95117 2.67269 0.100354
-0.405017 1.2282 -0.0359061
-0.526351 1.61144 -0.0549788
-0.582509 1.79354 -0.059048
-0.662423 2.05071 -0.0671592
-0.754694 2.35504 -0.0688116
-0.730885 2.32971 -0.0117877
-0.823448 2.65522 0.00766826
-0.809286 2.66511 0.0677085
-0.0120846 -0.514864 0.116933
-0.0184491 -0.654116 0.0443835
-0.0325634 -0.719948 -0.0264223
-0.0945379 1.25737 -0.0394203
-0.0323645 1.82099 0.00282583
0.00890051 1.93125 0.100722
-0.465827 -0.538683 0.0969157
-0.577987 -0.755673 -0.000785947
-0.357798 -0.142818 0.0051007
-0.347526 -0.110208 0.00115919
-0.332967 -0.0706855 0.00232157
0.218087 1.07947 -0.0385639
0.334494 1.29697 -0.0759239
0.394568 1.40213 -0.0843915
0.465372 1.52455 -0.0921286
0.560026 1.68938 -0.104345
0.643096 1.7942 -0.0542627
-1.09166 -0.683036 0.114681
-1.40051 -0.992512 0.0304547
-1.2326 -0.794073 0.0161446
-0.78552 -0.279371 0.00467932
-0.717903 -0.202794 0.00531921
-0.623398 -0.0942502 0.00294626
-0.589106 -0.0541576 0.000543028
-0.462434 0.0859536 0.00736415
0.725203 1.14674 -0.0846855
0.828273 1.22718 -0.0900271
0.984253 1.35176 -0.105376
1.48803 1.75281 -0.151869
-1.25262 -0.0874305 0.107813
-1.15318 -0.0272924 0.0601291
